# .PCD v0.7 - Point Cloud Data file format
VERSION 0.7
FIELDS x y z intensity
SIZE 4 4 4 4
TYPE F F F F
COUNT 1 1 1 1
WIDTH 490
HEIGHT 1
VIEWPOINT 0 0 0 1 0 0 0
POINTS 490
DATA ascii
-41.086021 -27.341818 2.5884786 9
-41.068546 -26.928738 4.2971158 10
-39.086048 -31.699429 0.8819415 8
-38.969551 -31.990139 2.6443472 9
-31.266258 24.954281 9.2300653 14
-31.066238 24.8123 10.646253 15
-28.222288 -8.4840422 2.5788405 10
-28.336945 25.037977 8.7244873 14
-27.892496 24.506641 9.941617 15
-26.803579 -16.169142 2.739207 10
-26.708971 24.90007 3.1952496 10
-25.815613 24.542803 4.3726664 11
-25.849684 24.455221 6.9129767 13
-25.844179 24.475666 8.2121611 14
-25.492821 24.706083 5.6202569 12
-25.082659 24.753851 4.3260512 11
-25.094437 24.644699 6.8328366 13
-25.012733 24.590149 8.0923748 14
-24.927933 24.065624 9.2770996 15
-24.464729 -17.847157 3.717314 11
-24.294756 -6.1679711 1.3156682 9
-24.253271 -5.8878551 3.0634851 11
-24.101709 -6.2086773 0.43795231 8
-23.201389 2.6241066 3.6957223 12
-23.229782 24.173958 8.976222 15
-23.029287 2.7593794 4.5044899 13
-22.944113 3.0379856 3.6632621 12
-22.559614 -10.792014 1.3126589 9
-22.363684 -10.968198 0.43830132 8
-22.186228 5.1515169 3.6049902 12
-21.834904 3.3143933 5.093215 14
-21.775772 6.3272696 0.39933884 8
-21.669632 6.3784981 1.1858751 9
-21.627254 -10.448714 6.4287958 15
-21.359627 -2.971278 1.1322306 9
-21.386122 -3.0320461 1.8903102 10
-21.212658 -2.932049 2.6284115 11
-21.375252 6.3200784 3.5279462 12
-20.942259 -3.0215616 3.3488288 12
-20.835539 -2.7949386 4.082325 13
-20.901768 5.9740639 4.2216158 13
-20.668333 6.8037233 1.9042552 10
-20.773155 6.7059078 2.679292 11
-20.579433 24.095379 6.1554646 13
-20.098715 23.952436 3.8382695 11
-20.085754 23.953987 4.9487624 12
-19.932253 9.4821148 3.4935308 12
-19.922922 23.801823 7.1605153 14
-19.756794 -12.253227 2.8535652 11
-19.597616 -3.9095063 3.1626716 12
-19.158058 1.2076504 3.0379155 12
-18.907263 -4.1926093 4.4656019 14
-18.712885 -1.4280018 4.3272567 14
-18.779829 3.8197253 4.4189243 14
-18.780888 5.5052786 4.5128412 14
-18.621979 3.615195 5.075819 15
-18.511175 3.306088 0.98752183 9
-18.563505 3.3924212 2.3161213 11
-18.595181 3.2240977 2.9866829 12
-18.042093 -16.588186 2.144805 10
-18.121588 -2.2490661 4.2102823 14
-18.192755 -2.1354418 4.9011164 15
-17.960663 -6.8595967 1.0096337 9
-17.821562 -16.163233 2.9531934 11
-17.977421 23.74342 3.6557701 11
-17.929007 23.696619 4.7039423 12
-17.952879 23.616587 6.8433347 14
-17.375719 3.0400486 0.31142235 8
-17.264183 -17.010653 1.2722293 9
-17.212799 -6.1850233 2.244828 11
-16.956816 -17.44689 2.129117 10
-16.946692 -17.315184 2.9739113 11
-16.837776 -4.6430693 3.3911197 13
-16.8909 -5.3535109 3.440253 13
-16.808912 -5.2598829 4.0606899 14
-16.811186 23.882885 4.6233788 12
-16.618792 -6.5716405 2.1933379 11
-16.682264 -5.8178477 2.7958329 12
-16.727966 -5.0206523 2.7637639 12
-16.767302 -4.6898623 2.7551599 12
-16.662067 -7.2569566 2.8760056 12
-16.700706 -6.5972328 2.8415899 12
-16.668745 -4.9395685 3.3753779 13
-16.710052 -4.774662 4.0067015 14
-16.75215 23.816614 5.6560221 13
-16.508852 -7.5635591 2.8736589 12
-16.43923 -5.6112752 3.3725159 13
-16.450075 -6.5515566 3.4378676 13
-16.520203 23.927864 3.5692427 11
-16.557827 -6.8264937 4.1292996 14
-16.31772 -18.460545 1.2932945 9
-16.280237 -7.7218075 1.5769854 10
-16.355749 -18.155975 2.1384861 10
-16.34454 -7.745275 2.2198448 11
-16.075108 -19.15444 0.44000295 8
-15.950975 -22.833578 6.4249253 14
-15.76544 -19.115248 2.1683371 10
-15.502905 -22.325176 7.2757807 15
-15.322848 -11.426802 0.33716464 8
-15.245906 -5.5698981 3.7418218 14
-15.339511 -20.718529 4.0805507 12
-15.333303 23.483004 5.4475636 13
-15.309043 23.472685 6.4642916 14
-15.108948 -10.974878 0.98071808 9
-15.135427 23.792183 3.4613886 11
-15.044491 -7.9916496 3.9274065 14
-15.160573 -20.462128 4.9462128 13
-14.875168 -20.545485 1.331369 9
-14.973673 -20.387991 2.2136581 10
-14.942795 5.575047 3.6765857 14
-14.805338 23.969517 5.4723687 13
-14.607762 5.475944 1.3654147 10
-14.611849 -21.256092 3.1661601 11
-14.692154 5.6838775 3.0581579 13
-14.739378 -7.8992 3.246582 13
-14.605705 -8.1755505 3.8587964 14
-14.740757 -21.284018 4.0981498 12
-14.690508 23.434153 4.3781676 12
-14.759077 23.922565 6.4839754 14
-14.739189 23.249378 7.3689561 15
-14.41019 5.4390583 0.27237257 8
-14.598378 5.3593521 0.8170374 9
-14.534135 5.5585322 1.909687 11
-14.482333 5.7542171 2.4657562 12
-14.406246 -8.4176769 4.4637122 15
-14.592786 -7.86342 4.4345951 15
-14.38262 7.3380113 1.9815902 11
-14.327387 6.1790299 3.5967281 14
-14.268108 -8.3437605 3.810432 14
-14.182446 7.5252109 2.5404537 12
-14.002421 23.199772 7.2537813 15
-13.737245 23.73313 6.3253841 14
-13.569558 -11.264068 2.7907488 12
-13.587473 23.445805 5.263433 13
-13.231187 -11.319075 3.380625 13
-13.390353 23.151941 7.1593122 15
-12.959776 -11.220985 3.9521508 14
-12.589113 23.406071 6.1302395 14
-12.378516 23.033392 6.9994917 15
-12.131253 23.611021 6.1229286 14
-11.231549 -10.580799 2.441509 12
-11.0228 -8.564188 3.2171233 14
-11.110133 -8.5699453 3.7526069 15
-11.182927 23.004942 6.8467884 15
-10.941974 -10.431558 2.9346092 13
-10.915054 -10.460588 3.4848151 14
-10.622841 -12.835389 4.4572415 15
-10.744289 23.205063 6.8448477 15
-10.495416 22.971483 3.9976408 12
-10.462913 22.921448 4.8937407 13
-10.286554 -11.167681 4.0612483 15
-9.8296213 22.884026 5.7444487 14
-9.7899075 22.934967 3.9471908 12
-9.7624254 22.892656 4.8336358 13
-9.485631 -10.584787 2.2487035 12
-9.3463373 -10.825697 2.2627826 12
-9.2499838 -10.986346 2.7876861 13
-9.277009 -11.006706 3.3177888 14
-9.3577356 23.119993 3.9479728 12
-9.3337994 23.083973 4.8360209 13
-9.3873701 23.042667 5.7388248 14
-9.2884398 22.618355 6.5446167 15
-9.1415243 -11.154472 1.769842 11
-8.7147398 -10.973732 2.2170255 12
-8.4244413 22.464678 5.5335569 14
-7.9411235 22.454094 5.4930658 14
-7.6282449 22.909571 4.6895747 13
-7.4013228 22.675705 3.7755039 12
-7.4047589 22.539249 6.3498559 15
-7.0703297 22.944756 5.5374937 14
-6.8485527 4.3599496 0.1452318 8
-6.5220838 4.4473262 0.41575143 9
-6.5936403 4.4407911 0.69605869 10
-6.5763187 4.4324341 0.97281659 11
-6.5877872 4.4435368 1.2561268 12
-6.5159349 4.4281287 1.5273927 13
-6.528141 4.4414458 1.8173654 14
-6.4883332 4.4175987 2.0961647 15
-6.5216985 22.584564 3.7207518 12
-6.3967862 4.3240738 -0.12977448 7
-6.2613091 4.5521097 -0.13012353 7
-6.2876987 4.3419509 0.13689829 8
-6.330802 4.6095467 0.14021425 8
-6.3528576 4.6324534 0.68843257 10
-6.3561606 4.6382732 0.96519977 11
-6.3375821 4.6280746 1.2404833 12
-6.3222613 4.6219282 1.5183294 13
-6.0944443 -10.51442 0.21565227 8
-5.8882113 4.6311059 -0.12576042 7
-5.8750424 4.5398474 0.39115354 9
-5.9797359 -10.531556 0.63674003 9
-5.9497776 22.162064 3.6319749 12
-5.608429 4.5289745 0.12935013 8
-5.5089121 4.4515448 0.37322849 9
-5.5589838 22.467142 5.3378491 14
-5.2944179 4.5505466 -0.1168597 7
-5.3601527 4.6121192 0.12695041 8
-5.3232646 22.772442 6.2592692 15
-4.9427752 4.4200115 0.34954646 9
-4.8055501 -10.670047 1.43592 11
-4.8203487 -10.692869 1.8552707 12
-4.876575 -10.628951 2.2691627 13
-4.9171729 -10.614623 2.6952369 14
-4.7857437 4.5214691 -0.10992237 7
-4.7561769 4.4981666 0.1177879 8
-4.6259542 -10.210473 0.5895068 9
-4.704073 -10.769271 2.7076092 14
-4.5148315 -10.058907 0.19597468 8
-4.5920825 22.003609 3.5576689 12
-4.3224812 4.352232 0.32350934 9
-4.1017513 4.4458032 -0.10058533 7
-4.0030537 4.343008 0.10661836 8
-3.8528047 4.2609153 0.30309832 9
-3.8662643 4.2803626 0.50518763 10
-3.7287335 4.2800746 0.10260431 8
-3.5214372 4.3078556 0.10064092 8
-3.4248505 4.1966987 0.47446522 10
-3.2989421 -9.5283842 -0.17100579 7
-3.3063986 -9.5337381 0.17965668 8
-3.2322018 4.1910515 0.27941626 9
-3.3139153 -9.5445967 0.53154474 9
-3.155587 4.219614 -0.086972453 7
-3.1981275 4.2814384 0.096801378 8
-3.0304477 4.1675014 0.27208924 9
-3.0034568 4.1347685 0.44766486 10
-2.9637346 -9.4022989 -0.167079 7
-2.9135597 4.3029523 -0.08570715 7
-2.9709258 -9.4078932 0.17572989 8
-2.9347577 4.2521276 0.093703583 8
-2.997781 -9.4811134 0.52317101 9
-2.7216089 4.2498059 0.091609299 8
-2.7880404 4.267962 0.26921079 9
-2.7506113 4.2152162 0.44091025 10
-2.4413483 4.2012839 -0.079816967 7
-2.5261464 4.2906833 0.090431258 8
-2.2383192 4.2395205 -0.078682564 7
-2.2237177 4.1850257 0.086242676 8
-2.3671553 4.2024584 0.25481838 9
-2.1639214 -8.9917202 -0.15643303 7
-2.1709883 -9.0003023 0.16512755 8
-2.1509449 4.1771927 0.2482764 9
-2.1779609 -9.0153198 0.48810592 9
-2.1479416 4.1141024 0.48806444 10.5
-2.1156471 -8.9839983 0.80805385 10
-1.9647969 -8.8991404 -0.15407696 7
-1.8829783 4.1283064 -0.074210376 7
-1.9786921 -8.9395876 0.16333868 8
-1.9374871 4.1705174 0.2430428 9
-1.9676832 4.0126176 0.54779726 11
-1.8186654 22.080021 5.929275 15
-1.6376764 -8.7185183 -0.14984475 7
-1.6207504 4.1031818 -0.072007015 7
-1.6590129 -8.8060703 0.15993546 8
-1.7100968 4.090147 0.080919698 8
-1.7052265 4.0641699 0.23303354 9
-1.725879 -8.8381052 0.47397518 9
-1.7567 22.081022 5.1083989 14
-1.4386933 4.1678586 -0.071963385 7
-1.4406222 4.1380892 0.08000344 8
-1.5240569 4.0561028 0.30421096 9.5
-1.4917158 22.174538 4.3160663 13
-1.2901002 4.030262 0.077385582 8
-1.2216069 4.038393 0.22315513 9
-1.2864259 4.0357871 0.51915795 11
-1.2481583 22.407036 1.9639567 10
-1.3102908 22.39588 2.7536323 11
-1.2755554 22.267752 5.1438293 14
-1.2646766 22.212997 5.9545097 15
-1.1608131 4.1499028 -0.070218146 7
-1.170958 4.0116429 0.36617419 10
-0.92231554 -8.3351965 -0.14138034 7
-0.86545831 4.1907697 -0.069694564 7
-0.92752075 -8.342164 0.15003122 8
-0.90086955 4.2395368 0.079174452 8
-0.86303598 4.0952096 0.22138879 9
-0.93265337 -8.3614988 0.44296613 9
-0.85777718 3.9959443 0.50087756 11
-0.90660834 -8.3262959 0.73331779 10
-0.70356673 -8.2185297 -0.13898061 7
-0.69442618 4.2275467 -0.069781832 7
-0.73932832 -8.2781315 0.1485914 8
-0.69414353 4.156652 0.077080168 8
-0.70532173 4.1191921 0.29309565 9.5
-0.7797612 22.01207 4.2774272 13
-0.42596281 4.1523333 0.29322571 9.5
-0.52205884 -8.1344786 0.42922795 9
-0.40583998 4.1066704 0.50575233 11
-0.46051857 3.9318571 0.69535601 12.5
-0.39819086 4.109982 0.075596713 8
-0.37084714 -8.6099558 1.057211 11
-0.34690621 -8.613431 1.3628932 12
-0.073351249 22.296326 0.39270693 8
-0.086122088 -7.8436627 0.41313466 9
-0.090427838 -7.859458 0.68821466 10
-0.10177846 -8.5081501 1.0438055 11
-0.104791 -8.5111227 1.3456855 12
-0.02540564 -7.4669976 1.718387 14
-0.053781029 22.234999 1.9458721 10
-0.051704507 -7.4942813 2.0010488 15
-0.046012402 22.2381 2.729563 11
-0.10802073 22.215675 3.5162137 12
0.016508648 -7.7736459 0.13921073 8
0.11277405 -7.8732862 0.41470471 9
0.0044893818 22.301788 1.1708285 9
0.21283206 -7.6532221 -0.12864007 7
0.21004848 -7.7008104 0.13798906 8
0.38253856 0.1608827 0.081398673 12.333333
0.31713849 -7.554225 0.92742026 11
0.41988233 -7.4994583 -0.12610947 7
0.4351604 0.16724153 -0.029432718 5.1999998
0.48179913 0.23979887 -0.081513971 2.7
0.44008264 -7.5083165 0.134804 8
0.43183136 0.13625729 0.053272184 10.5
0.48003688 0.27768484 0.088090353 11.2
0.52451587 0.46853316 0.16915002 13.5
0.59282017 -7.3584285 0.38892928 9
0.55610806 -8.0356522 1.5617384 13
0.76981544 0.46777478 -0.060692403 5.3333335
0.6851902 -7.3217373 0.13188072 8
0.76874387 0.46896821 0.034203574 8.5
0.63515705 -7.3544288 0.64637995 10
0.75625432 -7.9268661 0.97677737 11
0.65706283 -7.9760909 1.2651217 12
0.68651819 -6.7784405 1.3203651 13
0.78962678 -6.7903795 1.5727311 14
0.99530226 1.3964049 -0.20108984 4
0.99523497 1.3856382 -0.14129008 5
0.84539992 1.4469879 -0.11031425 5.5
0.9084813 -7.0731578 0.12799756 8
0.92855418 -0.38102227 0.17360783 11.5
0.97718316 1.2119374 0.13658163 10
0.84012538 1.4330422 0.089213155 9
0.94831103 -7.0516577 0.3749294 9
0.98125291 1.2682999 0.36474407 13
0.84363604 1.4341946 0.3007873 12
0.98749101 1.2752481 0.42516446 14
0.87202311 1.4071761 0.43648779 14
0.83622229 22.258623 1.1693891 9
0.87825882 -7.9175086 1.2592555 12
0.83630127 -6.7789035 1.3237042 13
0.90721393 -6.7065177 1.8062875 15
1.1930194 -0.72236556 -0.019344378 7
1.1273547 0.98538393 -0.1232908 5
1.0069369 1.4006824 -0.083926082 6
1.0479412 3.9345694 -0.066073194 7
1.1640196 -0.74147046 0.09795896 9.5
1.0664209 1.0679312 0.1179765 9.7142859
1.0391062 1.2613242 0.10378713 9.2857141
1.1533335 3.549618 0.19764136 9
1.0531557 3.8943498 0.073938727 8
1.0583589 1.0961519 0.31359589 12.4
1.0239412 1.2898403 0.29637983 12
1.1399308 3.5026128 0.32281423 10
1.0262126 3.9302261 0.3559334 10
1.0469934 4.4598718 0.24212693 9
1.070709 1.0893993 0.40219429 14
1.0450461 1.2050786 0.4203116 14
1.085992 3.5161445 0.49467075 11.333333
1.007537 4.6769376 0.41912133 10
1.1462917 -6.8936548 0.61195338 10
1.0154872 3.9509745 0.7164098 12.5
1.2444043 -0.70059133 -0.21533488 3
1.236946 -0.68812257 -0.099984877 5.3333335
1.2667476 3.5261521 -0.060401164 7
1.2028728 -6.9276233 0.12625232 8
1.3133492 -5.2673426 0.098284833 8
1.3951602 -2.1182618 0.13496904 9
1.2462128 -0.67739493 0.0444634 8.333333
1.2727138 0.88684273 0.056993816 8.5
1.3892043 1.1596971 0.065608442 8.5
1.383204 1.2132523 0.09846472 9
1.2789648 3.5876467 0.070011944 8
1.2626513 -6.7915444 0.3640697 9
1.2159034 3.3712544 0.31409866 10
1.3033202 -6.67802 0.59582961 10
1.3387303 3.252914 0.49298561 11.5
1.5458978 -2.6791551 -0.15562634 6
1.5087042 -2.1015186 -0.084665626 6.5
1.4355644 -0.61753535 -0.093746223 5.6666665
1.4854859 -0.57541382 -0.1100086 5.4000001
1.5822686 0.4544749 -0.13606074 5
1.4860643 1.064597 -0.15196668 5
1.4663191 3.4262016 -0.060052115 7
1.520053 -3.2543108 0.066216044 8
1.4351784 -2.6665711 0.1607445 9
1.5068561 -2.0718853 0.077803887 8.333333
1.4017652 -0.63077086 0.030351348 8
1.4612907 -0.56850833 0.084243275 9
1.4074448 1.1429962 0.15917933 10
1.4591919 3.4047821 0.068179436 8
1.4894708 -6.6073022 0.35700434 9
1.4953988 3.3907442 0.32477525 10
1.4893928 -6.5266471 0.58624244 10
1.5100433 3.1730895 0.5541271 12
1.5043886 3.2970431 0.44405597 11
1.5355912 3.4135971 0.72360992 13
1.447014 -6.6458755 0.83419025 11
1.5240672 3.3803499 0.98647821 14
1.7282767 -4.7547197 -0.083307445 7
1.6076429 -2.6352167 -0.048882574 7
1.6991028 -2.1136973 -0.042337921 7
1.7454139 3.27864 -0.059833962 7
1.7659791 -4.7728419 0.092351012 8
1.6665107 -3.2184358 0.066783249 8
1.7232368 -2.0644209 0.050465249 8
1.7388567 3.2623091 0.068048544 8
1.6249268 -5.3639913 0.29577127 9
1.791312 -2.0973418 0.29003531 10.5
1.6480531 -5.3896337 0.49363947 10
1.779606 -4.8702459 0.45420152 10
1.6549931 3.3166895 0.58463186 12
1.6681061 3.3398681 0.7217018 13
1.6438277 3.3102844 0.98324305 14
1.9244322 -0.63706595 -0.099757709 6
1.8475099 -2.0920939 0.14831473 9
1.9934003 -1.4338231 0.088660263 8.5
1.922322 -0.61516643 0.073350452 8.5
1.8043655 -4.7892556 0.2702575 9
1.9183615 -3.2258668 0.32891512 10
1.8553269 -2.6431308 0.33930948 10.5
1.9802531 -1.4848564 0.2171379 10
1.9376065 -3.2390115 0.46248874 11
1.900169 -2.5353565 0.49937508 12
1.8199946 -2.1056528 0.43836561 12
1.9947219 -1.5075152 0.57198024 13
1.9187067 -1.2017121 0.55830377 13.5
1.9297721 -1.0508978 0.54076397 13.5
1.9236639 -0.97363222 0.53145754 13.5
1.8116444 3.2629447 0.45730928 11
1.9633366 -5.4355459 0.70866477 11
1.978542 -1.5059264 0.65939569 14
1.9519588 -5.409802 0.90845114 12
1.8992518 22.702423 4.4243503 13
1.9854183 22.72925 5.2619286 14
1.9152374 22.655952 6.0852132 15
2.106468 -2.0779955 -0.080770612 6.6666665
2.0316467 -1.678575 -0.086333998 6.5
2.1599159 -2.276907 0.1129334 8.5
2.0495601 -2.0211024 0.15289411 9
2.0299177 -1.5110518 0.10550692 8.666667
2.1559193 -2.2111311 0.27073866 10
2.0850534 -1.8150847 0.33848664 11
2.1528938 -4.3752203 0.51243007 10.5
2.1169713 -2.2023289 0.48138511 12
2.0738003 -1.9019065 0.54305685 13
2.0149686 -1.7886174 0.42428654 12
2.0118339 -1.5605742 0.40082136 12
2.017792 -5.2723389 0.69221246 11
2.1435771 -4.3312154 0.76296717 12
2.0476589 -1.8699435 0.73607087 14
2.1267076 -4.0700512 0.88865966 13
2.1021485 22.954706 1.2100804 9
2.0912936 -7.224421 2.0081663 15
2.3094869 -2.0529203 0.11099248 8.5
2.3062763 -5.218833 0.49974039 10
2.2748094 -5.1964602 0.69556379 11
2.2078917 -3.8862679 0.70547748 12
2.2934294 -7.2237687 1.7442564 14
2.3498785 -7.1749964 2.0159311 15
2.3424969 22.698313 6.107213 15
2.5535836 -6.56989 1.3661592 13
2.4499173 -7.2366834 1.4811215 13
2.5978627 -5.616468 1.4231387 14
2.522294 -6.5604038 1.6171591 14
2.5988705 -5.6238337 1.6529373 15
2.4869108 23.10778 2.0338993 10
2.489841 23.059443 2.8468623 11
2.4056075 22.802431 4.4529715 13
2.7375288 -4.4373174 1.1981877 14
2.7232955 -5.1852574 1.3466554 14
2.7276952 -4.4247727 1.3857067 15
2.6847374 -5.1158595 1.5409981 15
2.6443598 -9.4489365 1.9032865 13
2.874465 23.13438 3.6898558 12
2.8977251 23.254667 4.5512385 13
2.8240945 23.158218 5.38059 14
4.3675289 26.449936 1.4069945 9
4.335906 26.202223 2.3241279 10
6.7824798 36.513435 7.214932 13
6.653667 45.854103 12.408162 15
8.1211309 36.502316 8.627758 14
8.0269079 36.560112 10.022498 15
10.22418 27.745852 5.7437944 13
10.24064 26.947418 6.6498766 14
10.416709 27.124943 7.7785368 15
10.985592 25.921398 7.536541 15
12.517425 23.183481 7.0525498 15
12.808599 22.865993 6.0453205 14
16.501942 20.541975 7.0531964 15
18.588219 19.873075 7.2841926 15
