# .PCD v0.7 - Point Cloud Data file format
VERSION 0.7
FIELDS x y z intensity
SIZE 4 4 4 4
TYPE F F F F
COUNT 1 1 1 1
WIDTH 154
HEIGHT 1
VIEWPOINT 0 0 0 1 0 0 0
POINTS 154
DATA ascii
-1.0381942 -0.41206679 -0.28367618 0.043986533
-0.84554851 -0.7224462 -0.28238207 0.038746957
-0.7307651 -0.82873571 -0.28044096 0.036501471
-1.103142 -0.1752827 -0.28367618 0.047492087
-0.11684567 -1.0501331 -0.26749998 0.026763622
-0.017733533 -1.0516338 -0.26620588 0.025268355
-0.39677194 -1.0000999 -0.27267635 0.031011064
0.12970442 -1.0388895 -0.2649118 0.023023194
0.73268747 -0.68921328 -0.253912 0.01201354
0.50584131 -0.88896632 -0.25844133 0.016766436
0.59865206 -0.82632834 -0.25779426 0.015021585
0.33541918 -0.98412037 -0.26297069 0.019772021
0.31429204 1.0163728 -0.26944113 -0.020226907
0.45120266 0.9554311 -0.26749998 -0.017978044
0.60280371 0.85600364 -0.2649118 -0.015235147
0.7711041 0.67929184 -0.25973544 -0.011493868
-0.067739576 1.0665381 -0.27073523 0.073990509
0.082389146 1.0582407 -0.26879409 -0.023763396
-0.37294933 1.0349302 -0.27914685 0.069495216
-0.16887237 1.0625958 -0.27267635 0.072491616
-1.0772107 0.22313429 -0.27914685 0.053250771
-0.72310865 0.84815788 -0.28302914 0.063763969
-1.0247449 0.3866106 -0.27785277 0.055741727
-0.82784235 0.73177695 -0.28044096 0.061520912
-1.0633821 -0.72088933 -0.2825526 1.0405183
-1.2464484 -0.34008697 -0.28423974 1.0457608
-0.77588618 -1.0024679 -0.27861592 1.035483
-0.9244898 -0.87088662 -0.27917832 1.0379751
-0.1513541 -1.2021379 -0.26568124 1.0269933
-0.58234465 -1.101235 -0.27355456 1.0327418
0.20542599 -1.1743095 -0.26118222 1.1222438
0.057114579 -1.198089 -0.26286939 1.1242418
0.87163234 -0.74381161 -0.25049704 1.1112432
0.41892198 -1.1083039 -0.25949511 1.1192484
0.58019507 -1.0162617 -0.25612086 1.1167438
0.76132053 -0.86288923 -0.25162181 1.1134939
0.51071262 1.0852885 -0.26286939 1.0820001
0.73882413 0.89489907 -0.25387132 1.0859841
0.81281334 0.8145678 -0.25162181 1.0874828
0.60770416 1.0284513 -0.26174462 1.0834941
0.0014557028 1.2384218 -0.27186742 1.0750186
0.28238234 1.1757582 -0.2651189 1.0787513
-0.3862054 1.1945958 -0.27580407 1.0700234
0.38934681 1.1370741 -0.26343173 1.0802505
-0.84697205 0.95948315 -0.28142783 1.06349
-1.0970349 0.67323238 -0.28311494 1.0587602
-0.73416376 1.042366 -0.28030309 1.0652339
-1.2537367 0.34113055 -0.28592685 1.0542281
-1.2195328 -0.88608706 -0.28052241 2.0399997
-1.3472085 -0.71381056 -0.28386158 2.0422454
-1.4373683 -0.54409015 -0.28624669 2.0442407
-1.500082 -0.31105101 -0.28529263 2.046746
-0.26863912 -1.398447 -0.26430365 2.0280206
0.063788101 -1.3906518 -0.25810236 2.1242704
-0.62455809 -1.3232973 -0.27193603 2.0320184
0.23454681 -1.3547829 -0.25476322 2.1222718
0.38414559 -1.31507 -0.25380915 2.1204767
0.96152192 -0.90574849 -0.24426872 2.1120248
1.1721847 -0.5763728 -0.24140659 2.1072733
0.50065351 -1.2700008 -0.25285512 2.1190236
0.90474093 0.96247005 -0.24426872 2.087008
0.62675315 1.234795 -0.25667128 2.0824754
1.0196166 0.81646037 -0.24140659 2.0892539
0.7629931 1.1201298 -0.25094703 2.084517
0.47066393 1.3127434 -0.25857937 2.0804791
-0.091170616 1.445684 -0.26907387 2.0739977
-0.34058747 1.418044 -0.27098197 2.0712485
0.26332581 1.3869702 -0.26191854 2.0779862
-0.81458169 1.2420821 -0.2762292 2.0657618
-1.0937382 1.0302314 -0.27956837 2.0620244
-1.440668 0.46812046 -0.28195348 2.0550003
-1.3858348 0.59939772 -0.28099945 2.0564971
-1.6863626 -0.88961065 -0.29101005 3.0422742
-1.5250288 -1.1111159 -0.28788134 3.0399787
-1.9078038 -0.1824026 -0.29257438 3.0484829
-1.3248247 -1.3261571 -0.28592592 3.037492
-0.79694843 -1.6282246 -0.2761488 3.0322444
-0.053543102 -1.7057836 -0.25933206 3.0254993
-0.99993825 -1.5239 -0.27771312 3.0342422
0.44063774 -1.6129514 -0.25385687 3.1207557
1.0729091 -1.2173457 -0.24603513 3.1135025
1.2245793 -1.0457344 -0.24407971 3.1112487
0.74394441 -1.4615072 -0.24877274 3.1175063
0.87973195 -1.3869514 -0.24916384 3.1160038
1.0895258 1.1622034 -0.2413421 3.0869865
0.74913812 1.4699458 -0.25033709 3.0825014
1.2035153 0.96666193 -0.23352039 3.0892301
1.488676 -0.50900084 -0.23821342 3.1052434
-0.77594554 1.6437988 -0.27693096 3.0679808
-0.55553728 1.702216 -0.27262899 3.0699792
-0.29721427 1.7181439 -0.26519835 3.0722737
0.081171222 1.6873884 -0.25659448 3.0757651
-1.2479744 1.4152212 -0.28788134 3.0634983
-1.797621 0.61285633 -0.28983679 3.0552294
-1.0178455 1.5475866 -0.28240615 3.0657408
-1.7321041 0.77900571 -0.28983679 3.0567265
-1.5275053 -1.9018919 -0.29005447 4.0357695
-2.2051938 -1.2119323 -0.2994993 4.0420022
-2.3792207 -0.89948815 -0.30285075 4.0442472
-1.9619721 -1.5194432 -0.29523391 4.0395122
0.26756671 -2.0973036 -0.25014225 4.1229806
-0.064122818 -2.1431191 -0.25379834 4.025476
0.81245565 -1.8710841 -0.24100205 4.1184802
-0.73537958 -2.1587343 -0.27055535 4.0302253
1.3247577 -1.4985535 -0.23612727 4.1134787
1.5605963 -1.2069558 -0.23277587 4.1104774
1.4524604 -1.3606611 -0.23490858 4.1119809
1.300927 1.5192881 -0.23612727 4.0862703
-0.13012931 2.0580847 -0.24374409 4.0739951
-0.66845602 2.0580952 -0.25623572 4.0700016
0.33850446 1.9536835 -0.23399456 4.0777307
0.65798026 1.8362049 -0.23003381 4.0804763
-2.4306028 0.7496255 -0.30285075 4.0547614
-2.1701803 1.2833461 -0.30010867 4.0584993
-2.2997961 1.0392869 -0.30041337 4.0567551
-0.91650271 2.0312519 -0.26415721 4.068254
-1.694502 -3.0785534 -0.29947776 5.0330081
-2.5927272 -2.7617075 -0.32344559 5.0369978
-3.0190465 -2.5004103 -0.33499372 5.038991
-2.2605488 -2.9145114 -0.31473002 5.0354996
-1.3583634 -3.1353586 -0.29098007 5.0315065
-0.29222932 -3.0718596 -0.26200077 5.0265093
-0.8140983 -3.1670644 -0.2781246 5.0290046
0.31706265 -2.881551 -0.24565908 5.1232557
2.0162725 -1.7233094 -0.22408804 5.1112556
1.8110681 -1.9920231 -0.22757426 5.1132569
0.47683883 2.492626 -0.21406512 5.0780082
-0.16371045 2.6548157 -0.22474171 5.0740199
-0.78662807 2.7228398 -0.23999397 5.0705237
0.80202305 2.3420455 -0.2086179 5.0802507
-1.1775979 2.7115538 -0.25067055 5.0684791
-1.6762936 2.6380422 -0.26548702 5.0659909
-2.569972 2.3415625 -0.29620942 5.0617604
-3.7869484 1.4966121 -0.34828499 5.0559902
-5.3976951 -6.7503314 -0.44648343 6.0357351
-8.3181219 -6.6830487 -0.55272543 6.039228
-10.251245 -1.2789482 -0.53493118 6.0480247
-9.1713305 -5.8020267 -0.56227672 6.0410228
1.4732583 -4.2981896 -0.2316443 6.1197443
0.77810174 -4.8916063 -0.25310206 6.1224895
1.2000997 3.0181043 -0.16373841 6.0810232
-0.69462347 4.3942361 -0.2266724 6.072505
0.69945776 3.6839471 -0.19003724 6.0779862
-4.3266435 4.4566073 -0.31904536 6.0627356
-6.4364285 3.5433655 -0.37857753 6.0580091
-1.5669737 4.3578897 -0.23622371 6.0695062
-9.4082279 0.59399509 -0.48756716 6.0510035
-10.560365 -11.250037 -0.26433253 7.0369968
-14.271749 -9.7197618 -0.29640132 7.0404844
-8.6242647 -11.120384 -0.24064088 7.0354986
1.9793923 -1.347456 -0.036796786 7.1095123
0.99826676 1.2048081 -0.022311287 7.0860124
1.0698111 1.0686911 -0.021395035 7.0875082
0.71394318 9.2333746 -0.1566512 7.0762281
